-0.083880 0.065463 -0.020590 
-0.053957 0.097679 -0.020277 
-0.069563 0.107345 -0.021209 
-0.032279 0.123961 -0.021309 
0.026257 0.124428 -0.022156 
0.053439 0.151121 -0.021283 
0.031956 0.160800 -0.020496 
0.015621 0.160960 -0.020672 
0.036109 0.161058 -0.020453 
-0.069015 0.162799 -0.022252 
-0.029715 0.177245 -0.021519 
-0.035969 0.190201 -0.019794 
-0.039798 0.192978 -0.019524 
-0.087502 0.060435 -0.021316 
0.007537 0.101323 -0.022641 
-0.019281 0.122605 -0.019484 
0.073532 0.123099 -0.019209 
0.073495 0.130179 -0.020331 
-0.012850 0.134878 -0.021103 
0.061496 0.138677 -0.021542 
-0.053218 0.143816 -0.018291 
-0.005464 0.149615 -0.020004 
0.051461 0.155747 -0.019596 
-0.060400 0.156562 -0.021991 
0.004791 0.155455 -0.021136 
0.040706 0.159348 -0.021605 
-0.072869 0.173896 -0.019487 
-0.048760 0.178674 -0.021597 
-0.036089 0.053379 -0.020538 
-0.055418 0.054939 -0.019347 
-0.084886 0.063023 -0.019349 
-0.077390 0.074132 -0.019485 
0.051663 0.074728 -0.017635 
0.013248 0.084944 -0.018120 
-0.050669 0.093733 -0.018284 
0.011429 0.109225 -0.022371 
-0.073162 0.109257 -0.019283 
-0.029567 0.122393 -0.019552 
-0.027551 0.124280 -0.017236 
0.064718 0.126351 -0.019999 
0.069770 0.130901 -0.019213 
0.064894 0.136962 -0.019129 
-0.067958 0.141091 -0.020943 
-0.064168 0.152591 -0.020232 
0.055866 0.152040 -0.018838 
-0.022813 0.162067 -0.021988 
-0.068766 0.165913 -0.020334 
-0.068174 0.169498 -0.020620 
-0.043218 0.186981 -0.020695 
-0.031849 0.185370 -0.018249 
0.031285 0.052915 -0.018965 
-0.078975 0.059363 -0.018962 
-0.086858 0.058806 -0.019993 
-0.080175 0.067279 -0.019596 
0.046454 0.081784 -0.020691 
-0.081535 0.086026 -0.018048 
-0.074571 0.098075 -0.020944 
0.064167 0.117760 -0.018183 
-0.024200 0.130032 -0.019566 
0.077190 0.130600 -0.019746 
0.073372 0.135503 -0.019317 
-0.023635 0.137108 -0.019138 
-0.010386 0.144171 -0.019555 
-0.055593 0.144822 -0.017679 
-0.022899 0.148166 -0.017181 
0.018326 0.159421 -0.019781 
-0.025127 0.166825 -0.021067 
0.028140 0.053806 -0.020312 
0.037771 0.055556 -0.021248 
-0.008233 0.069964 -0.019900 
0.012621 0.074039 -0.020366 
0.014863 0.090586 -0.017454 
-0.023997 0.109761 -0.018908 
0.012482 0.111419 -0.017720 
-0.016252 0.131566 -0.020036 
0.006769 0.155197 -0.018581 
-0.065962 0.175675 -0.020391 
-0.029418 0.178628 -0.018902 
-0.036168 0.193275 -0.018844 
-0.029608 0.053067 -0.016739 
-0.063713 0.056379 -0.017467 
-0.075068 0.059052 -0.019539 
0.015098 0.064353 -0.020361 
0.002802 0.087556 -0.018872 
-0.080600 0.095471 -0.017658 
0.007028 0.096308 -0.016336 
-0.067104 0.117653 -0.020152 
0.021195 0.123490 -0.016273 
-0.057704 0.131441 -0.020818 
0.077518 0.134353 -0.019407 
-0.069942 0.139326 -0.017984 
-0.065770 0.142299 -0.018026 
-0.062299 0.148228 -0.023017 
0.057326 0.149406 -0.019156 
-0.060904 0.158983 -0.017816 
0.027556 0.159388 -0.018855 
0.039990 0.159914 -0.019603 
-0.081218 0.161546 -0.018180 
-0.025345 0.160680 -0.018373 
-0.052779 0.179776 -0.018775 
-0.047542 0.053763 -0.019127 
-0.043907 0.053365 -0.017150 
-0.048466 0.103753 -0.018958 
0.076203 0.124568 -0.018335 
0.080569 0.139387 -0.016848 
-0.067632 0.150159 -0.020144 
-0.067098 0.156191 -0.020677 
0.050199 0.154954 -0.018076 
-0.067209 0.157870 -0.016808 
-0.058320 0.157978 -0.018595 
-0.025846 0.182925 -0.019345 
-0.035257 0.186577 -0.019209 
-0.082066 0.061039 -0.018641 
0.047446 0.077367 -0.015888 
0.045626 0.086302 -0.020886 
-0.038575 0.091095 -0.016914 
-0.079398 0.102079 -0.016958 
-0.032023 0.118648 -0.018029 
-0.016545 0.132820 -0.017600 
-0.010813 0.140092 -0.017402 
-0.058502 0.144983 -0.018509 
-0.001587 0.149206 -0.018582 
-0.058574 0.154452 -0.018185 
0.011134 0.154695 -0.016713 
0.046171 0.158299 -0.019957 
-0.071459 0.170322 -0.017855 
-0.026329 0.053114 -0.015036 
0.068662 0.055603 -0.016004 
0.043011 0.056272 -0.019251 
0.048611 0.058006 -0.019592 
-0.067640 0.060111 -0.019533 
-0.079624 0.065191 -0.017481 
0.013723 0.068623 -0.021140 
-0.081197 0.078265 -0.017355 
0.020529 0.100480 -0.018046 
-0.034948 0.114612 -0.015329 
0.070623 0.118728 -0.018105 
0.069625 0.124519 -0.019314 
-0.020463 0.125516 -0.017552 
-0.074727 0.140046 -0.015764 
-0.008203 0.143678 -0.018691 
0.061643 0.144054 -0.017683 
0.001638 0.153975 -0.019408 
0.013206 0.157527 -0.018860 
0.021149 0.157548 -0.018011 
0.053524 0.055214 -0.018404 
-0.072688 0.116225 -0.016286 
0.061374 0.110417 -0.017250 
-0.023178 0.118202 -0.017488 
0.066543 0.118548 -0.017156 
0.066985 0.130275 -0.018557 
-0.014003 0.137034 -0.018304 
-0.072373 0.144041 -0.018045 
0.058957 0.146645 -0.017191 
-0.072932 0.156414 -0.016917 
-0.070814 0.175583 -0.018190 
-0.033115 0.175589 -0.017793 
-0.062827 0.177818 -0.018742 
0.022597 0.054739 -0.016607 
0.055343 0.071780 -0.018376 
-0.037241 0.113668 -0.017589 
-0.056258 0.135900 -0.018098 
0.064353 0.139611 -0.017677 
0.002811 0.150200 -0.016661 
0.045232 0.155688 -0.017854 
0.040936 0.157545 -0.017765 
-0.081101 0.159785 -0.016799 
-0.078352 0.164886 -0.016236 
0.035651 0.052810 -0.016411 
-0.039469 0.054516 -0.015470 
-0.032884 0.054022 -0.016409 
-0.021339 0.054901 -0.017280 
-0.014711 0.061439 -0.018442 
0.064854 0.064018 -0.015372 
0.012876 0.067912 -0.015704 
0.051720 0.095967 -0.018354 
0.009502 0.103232 -0.016978 
-0.026359 0.108945 -0.016954 
-0.042029 0.111623 -0.019406 
-0.066740 0.121532 -0.018580 
0.073617 0.140449 -0.017170 
0.012050 0.072612 -0.016905 
-0.031659 0.096987 -0.017989 
-0.048322 0.097726 -0.015857 
-0.033016 0.099456 -0.014343 
0.024030 0.104948 -0.014872 
0.026371 0.123827 -0.017674 
-0.026296 0.128966 -0.017698 
-0.026502 0.133500 -0.015630 
0.083683 0.135496 -0.017040 
0.067323 0.136851 -0.015990 
-0.004929 0.146095 -0.017901 
0.053730 0.151299 -0.017272 
-0.076175 0.162119 -0.019278 
-0.073274 0.169237 -0.015510 
-0.041960 0.186679 -0.015702 
0.039609 0.053239 -0.017416 
-0.076348 0.061641 -0.016135 
-0.009103 0.066402 -0.015792 
-0.043621 0.089594 -0.018333 
0.016483 0.093569 -0.019384 
-0.025621 0.114068 -0.016212 
-0.020419 0.122344 -0.014618 
0.071497 0.144328 -0.013392 
-0.074776 0.140972 -0.012532 
0.062101 0.140170 -0.016064 
0.058211 0.141298 -0.013804 
0.052118 0.148631 -0.014740 
-0.082567 0.166321 -0.012995 
-0.072045 0.165402 -0.017562 
-0.071405 0.177055 -0.012143 
-0.067327 0.177185 -0.015938 
-0.043349 0.186969 -0.017716 
-0.060410 0.053917 -0.013887 
0.066729 0.054229 -0.017124 
0.018184 0.058631 -0.017782 
0.000565 0.081555 -0.014751 
0.046986 0.088589 -0.017031 
0.049913 0.091428 -0.014193 
-0.038131 0.109485 -0.014719 
-0.077117 0.108668 -0.016370 
0.029889 0.121928 -0.018259 
-0.054629 0.139165 -0.011848 
-0.054058 0.140625 -0.015648 
0.069953 0.138367 -0.017287 
0.044283 0.153771 -0.016157 
0.018515 0.155385 -0.013063 
-0.079264 0.157996 -0.013569 
-0.076535 0.166926 -0.013959 
-0.033465 0.182650 -0.016232 
0.034253 0.053897 -0.012892 
-0.071476 0.058553 -0.015164 
0.014549 0.063260 -0.015465 
0.060580 0.067319 -0.016550 
-0.078724 0.068163 -0.016937 
0.077328 0.124096 -0.012778 
-0.013365 0.133110 -0.015379 
-0.058970 0.133557 -0.014212 
-0.008299 0.139935 -0.015848 
-0.025217 0.138816 -0.013853 
-0.061061 0.144748 -0.014269 
-0.032834 0.179508 -0.016308 
-0.054362 0.180717 -0.014323 
-0.046117 0.181818 -0.016544 
-0.018153 0.056881 -0.015729 
0.020764 0.054867 -0.011016 
0.012225 0.078817 -0.016333 
0.057048 0.101249 -0.015406 
-0.029010 0.104129 -0.015757 
0.074182 0.111346 -0.014410 
0.066461 0.132998 -0.015135 
-0.077636 0.142986 -0.014912 
-0.073261 0.149137 -0.014347 
-0.058297 0.155775 -0.013821 
-0.024923 0.158855 -0.015308 
-0.030817 0.172150 -0.017597 
-0.014473 0.058875 -0.012512 
-0.082046 0.073824 -0.015408 
0.002762 0.086161 -0.012289 
0.064343 0.111033 -0.014080 
-0.031038 0.119548 -0.015559 
0.082126 0.130613 -0.016573 
0.063443 0.134966 -0.015511 
-0.069829 0.150055 -0.013587 
0.028555 0.156827 -0.015324 
-0.023739 0.053740 -0.016466 
-0.031272 0.054655 -0.012417 
0.068681 0.059861 -0.014079 
0.012278 0.072344 -0.013226 
0.005091 0.091526 -0.013022 
0.018744 0.096355 -0.014533 
0.070304 0.112407 -0.015336 
-0.033535 0.119237 -0.013345 
0.033236 0.121797 -0.009680 
0.064769 0.128675 -0.014112 
-0.002421 0.145064 -0.014707 
-0.038837 0.184578 -0.015020 
0.029931 0.052978 -0.014847 
-0.084283 0.083766 -0.014583 
0.047697 0.085828 -0.011920 
-0.084008 0.093944 -0.014131 
-0.042093 0.092281 -0.014117 
-0.045941 0.093812 -0.014321 
0.059400 0.103049 -0.014314 
0.015160 0.116449 -0.016674 
0.030863 0.116621 -0.013132 
-0.023357 0.118740 -0.014693 
0.083357 0.126939 -0.014302 
0.067644 0.129389 -0.012659 
0.086618 0.139431 -0.015008 
-0.064057 0.160710 -0.014079 
-0.088872 0.162646 -0.012879 
-0.060553 0.180516 -0.012684 
0.026983 0.053187 -0.010529 
-0.047231 0.054215 -0.013584 
0.047400 0.055177 -0.015235 
0.072402 0.057590 -0.010580 
-0.080456 0.066051 -0.012488 
0.059028 0.068203 -0.011406 
0.045715 0.081627 -0.015223 
0.013595 0.084557 -0.013711 
0.017423 0.090542 -0.011228 
0.028166 0.111666 -0.014534 
0.088934 0.134231 -0.013639 
-0.089022 0.165392 -0.014722 
-0.028453 0.168316 -0.017028 
0.064260 0.053812 -0.013831 
-0.042838 0.096581 -0.012950 
-0.036668 0.095287 -0.014145 
0.054764 0.096706 -0.013721 
-0.044092 0.103004 -0.014852 
-0.023019 0.112719 -0.012244 
-0.018476 0.127338 -0.015826 
-0.068043 0.124942 -0.010976 
-0.030117 0.126013 -0.014192 
-0.063065 0.128761 -0.015044 
0.062681 0.125901 -0.013120 
-0.069685 0.143191 -0.013992 
0.052373 0.145968 -0.011130 
0.081724 0.146307 -0.012779 
-0.074292 0.147336 -0.015709 
0.035266 0.157094 -0.016484 
-0.055501 0.159053 -0.010962 
-0.022465 0.160621 -0.012448 
-0.090661 0.169068 -0.012142 
-0.027657 0.166951 -0.013784 
-0.007539 0.067166 -0.011892 
-0.003561 0.073429 -0.013145 
-0.028295 0.107561 -0.013903 
-0.025960 0.108671 -0.012538 
0.080606 0.125183 -0.014246 
0.075203 0.146291 -0.011608 
0.024787 0.155272 -0.011118 
-0.081756 0.158546 -0.013934 
-0.078495 0.168522 -0.010104 
-0.036003 0.177101 -0.013872 
-0.055125 0.053430 -0.015153 
0.016545 0.059793 -0.012462 
-0.025645 0.113700 -0.014080 
0.063614 0.120513 -0.012510 
0.085790 0.128473 -0.012190 
-0.082630 0.145739 -0.010759 
0.041981 0.152475 -0.011535 
-0.074649 0.159209 -0.013078 
-0.093190 0.166146 -0.011352 
-0.072936 0.173675 -0.013955 
0.024615 0.053038 -0.013166 
-0.048540 0.055639 -0.010225 
-0.041384 0.056812 -0.012075 
-0.077789 0.060510 -0.009346 
0.014547 0.064164 -0.011638 
0.054136 0.094797 -0.010524 
-0.030894 0.103420 -0.013169 
0.061504 0.106200 -0.012192 
-0.081444 0.140476 -0.011623 
-0.056062 0.144520 -0.010179 
-0.057975 0.160468 -0.014134 
-0.024429 0.167160 -0.012205 
-0.042615 0.180705 -0.012920 
0.045003 0.052831 -0.012193 
-0.072800 0.057164 -0.010019 
-0.084323 0.075681 -0.012548 
0.047628 0.077378 -0.012152 
-0.085852 0.084575 -0.011851 
0.061018 0.117757 -0.010587 
0.019951 0.121772 -0.017824 
0.089770 0.130711 -0.012863 
0.090034 0.136753 -0.013799 
-0.024155 0.143203 -0.013574 
-0.063016 0.144583 -0.012050 
0.073065 0.146688 -0.013070 
0.003193 0.148293 -0.012313 
-0.023742 0.153219 -0.013793 
-0.049023 0.180899 -0.013361 
0.071045 0.054174 -0.008425 
-0.084104 0.071088 -0.009080 
0.015420 0.083485 -0.009782 
0.057427 0.099014 -0.010633 
-0.027952 0.103036 -0.011313 
0.070282 0.104995 -0.010845 
-0.038543 0.110639 -0.011345 
-0.075311 0.115659 -0.012813 
0.076814 0.120286 -0.013730 
0.019493 0.124842 -0.010849 
-0.015809 0.127872 -0.014301 
-0.061801 0.130660 -0.010799 
-0.082543 0.139727 -0.007112 
-0.024502 0.146724 -0.010854 
-0.065160 0.151075 -0.013511 
-0.014390 0.164045 -0.011802 
-0.014221 0.172404 -0.011550 
0.041860 0.053985 -0.010460 
-0.038870 0.097538 -0.011507 
-0.041102 0.102279 -0.011913 
0.074257 0.102491 -0.010187 
0.076811 0.113745 -0.013168 
0.010263 0.108934 -0.011740 
0.065939 0.108863 -0.011964 
-0.067726 0.123508 -0.015178 
-0.018679 0.119638 -0.010492 
0.028553 0.126013 -0.011436 
-0.058327 0.133726 -0.008444 
0.069056 0.134414 -0.012126 
0.071269 0.143904 -0.010146 
-0.066704 0.143732 -0.011278 
-0.071108 0.149292 -0.009871 
-0.022606 0.153421 -0.011696 
-0.015075 0.161104 -0.011703 
-0.072441 0.161570 -0.010885 
-0.061688 0.162217 -0.009597 
-0.021826 0.171882 -0.011047 
-0.029298 0.171754 -0.011550 
-0.000721 0.079112 -0.009039 
-0.032765 0.099065 -0.011403 
0.059609 0.102180 -0.010511 
-0.079632 0.109526 -0.011464 
0.084037 0.124888 -0.011906 
0.078685 0.126212 -0.011086 
0.024490 0.125625 -0.013555 
0.058943 0.134032 -0.010153 
0.069752 0.138974 -0.012447 
-0.080715 0.147588 -0.008913 
-0.081164 0.160331 -0.010847 
-0.014616 0.174492 -0.010092 
0.056423 0.054550 -0.009751 
-0.065793 0.054780 -0.012289 
0.008193 0.101500 -0.012055 
0.065219 0.120728 -0.011180 
-0.033574 0.124234 -0.008429 
0.083118 0.126881 -0.010761 
0.080161 0.132555 -0.009506 
-0.029117 0.131011 -0.011109 
-0.052258 0.142969 -0.009408 
0.089598 0.145270 -0.011091 
-0.016997 0.152017 -0.010980 
0.071920 0.148231 -0.009913 
-0.064908 0.152427 -0.011714 
-0.014106 0.152723 -0.009593 
0.011783 0.153280 -0.012102 
-0.019318 0.157639 -0.011084 
-0.086445 0.168191 -0.012163 
-0.065590 0.179327 -0.012269 
-0.035910 0.056036 -0.011141 
0.067443 0.069848 -0.008980 
0.052782 0.071808 -0.012002 
0.051007 0.091670 -0.009789 
-0.033690 0.096194 -0.009376 
-0.082502 0.101671 -0.012704 
0.059190 0.107209 -0.010142 
0.075094 0.124856 -0.009795 
0.021969 0.129202 -0.007681 
0.090170 0.128628 -0.010752 
0.075689 0.130742 -0.009764 
0.071684 0.134428 -0.010047 
0.094234 0.137170 -0.011321 
0.091843 0.139412 -0.009973 
0.077835 0.146108 -0.013315 
-0.080302 0.163306 -0.007181 
-0.073425 0.169294 -0.012005 
-0.072663 0.172774 -0.010200 
0.067344 0.066361 -0.010436 
-0.030137 0.097673 -0.008971 
0.058084 0.114036 -0.007867 
0.066492 0.119824 -0.007352 
0.030755 0.124908 -0.011072 
0.092609 0.130661 -0.010537 
0.032146 0.154423 -0.010207 
-0.009481 0.161593 -0.010811 
-0.013204 0.165162 -0.009755 
-0.012544 0.171676 -0.011077 
-0.034153 0.175172 -0.010812 
-0.026239 0.053409 -0.005111 
-0.066550 0.054009 -0.006360 
-0.039137 0.056588 -0.007606 
-0.012454 0.060603 -0.009514 
0.053173 0.097722 -0.009758 
0.050278 0.098258 -0.008650 
0.063689 0.106534 -0.006931 
0.012303 0.116484 -0.009806 
0.059542 0.123768 -0.008625 
0.087813 0.130658 -0.009237 
0.085883 0.133851 -0.008843 
-0.019408 0.156606 -0.006801 
-0.086440 0.159382 -0.008186 
-0.010336 0.173955 -0.010097 
-0.061383 0.180621 -0.008715 
-0.055179 0.053820 -0.010618 
0.078310 0.102458 -0.008629 
0.063026 0.113020 -0.010068 
-0.013800 0.126032 -0.008243 
0.070154 0.128112 -0.010254 
0.096227 0.136629 -0.009011 
0.084241 0.146049 -0.009615 
0.021687 0.152629 -0.007546 
-0.023101 0.174518 -0.007699 
0.064059 0.066623 -0.010401 
0.064510 0.071092 -0.007330 
0.048755 0.089038 -0.008544 
-0.086110 0.091598 -0.010107 
0.004908 0.094396 -0.008303 
0.064232 0.104574 -0.007693 
-0.075685 0.116690 -0.005413 
0.091321 0.131552 -0.009194 
-0.003655 0.141714 -0.010848 
-0.085547 0.141402 -0.010520 
0.090964 0.143099 -0.009929 
0.072999 0.146145 -0.008129 
0.077577 0.148323 -0.010161 
0.081776 0.149906 -0.008944 
-0.067537 0.153153 -0.007480 
-0.067927 0.162420 -0.009553 
-0.009737 0.163098 -0.009281 
-0.092835 0.170452 -0.009168 
-0.027453 0.174561 -0.008134 
-0.072721 0.176161 -0.007528 
0.055295 0.053634 -0.006277 
-0.022297 0.053567 -0.007800 
0.035041 0.054858 -0.010066 
-0.040228 0.097793 -0.008895 
0.005140 0.099112 -0.006264 
0.029086 0.102571 -0.006200 
0.077583 0.118565 -0.009511 
-0.071764 0.121063 -0.010556 
0.092894 0.134786 -0.009254 
-0.019247 0.148161 -0.009276 
0.015711 0.152807 -0.009239 
-0.018178 0.168444 -0.010438 
-0.054709 0.180582 -0.008210 
-0.060531 0.053333 -0.008609 
-0.044701 0.056134 -0.006590 
-0.016571 0.056442 -0.006970 
0.058707 0.068612 -0.007905 
0.014035 0.074677 -0.009218 
-0.086123 0.076897 -0.008460 
0.049769 0.087655 -0.009776 
-0.086912 0.089356 -0.007449 
0.018911 0.085350 -0.006631 
-0.086126 0.094352 -0.007838 
-0.024236 0.106398 -0.009154 
0.073528 0.122691 -0.007359 
-0.010245 0.132740 -0.009867 
0.060053 0.128644 -0.009937 
-0.090592 0.141578 -0.008195 
0.072169 0.142586 -0.008259 
-0.063680 0.144173 -0.006249 
0.010087 0.148081 -0.006863 
0.088923 0.147432 -0.009153 
0.008222 0.150223 -0.009933 
-0.015569 0.159039 -0.008630 
-0.087392 0.171387 -0.007877 
0.018989 0.056963 -0.009276 
0.078031 0.094851 -0.005563 
-0.041968 0.102733 -0.009087 
-0.042054 0.107877 -0.008782 
0.064671 0.110500 -0.007635 
-0.038249 0.116210 -0.008716 
0.094013 0.137480 -0.007855 
0.088787 0.139417 -0.007746 
-0.028109 0.137322 -0.008698 
0.076430 0.145946 -0.007762 
0.001661 0.143578 -0.007217 
-0.086561 0.149191 -0.007786 
-0.013445 0.149892 -0.008641 
-0.090510 0.162911 -0.009258 
-0.074919 0.164331 -0.005055 
-0.043478 0.178842 -0.009397 
0.072711 0.055656 -0.008698 
0.040223 0.056222 -0.007805 
0.072463 0.064513 -0.006132 
0.015782 0.065064 -0.007748 
-0.003437 0.073586 -0.007683 
-0.086642 0.081439 -0.007737 
0.044771 0.086029 -0.007610 
0.046758 0.084220 -0.007380 
-0.037667 0.095148 -0.007754 
-0.075192 0.118125 -0.008156 
0.088338 0.136892 -0.007478 
0.082055 0.140764 -0.006469 
-0.088702 0.139524 -0.007037 
-0.025057 0.146260 -0.006012 
0.045424 0.149016 -0.008412 
-0.013008 0.160709 -0.007409 
-0.083728 0.174413 -0.006518 
-0.097755 0.171845 -0.008030 
-0.071153 0.055176 -0.005137 
0.074285 0.059290 -0.004545 
0.052291 0.074240 -0.007138 
-0.031086 0.095907 -0.005379 
0.068193 0.100337 -0.006188 
0.010049 0.121291 -0.003928 
-0.014146 0.120465 -0.004621 
0.069255 0.120861 -0.005658 
0.055706 0.138989 -0.008713 
0.074931 0.138896 -0.008005 
0.039591 0.149993 -0.006845 
-0.014866 0.164476 -0.006883 
-0.014994 0.172260 -0.007454 
-0.038645 0.177816 -0.007889 
-0.066868 0.179617 -0.007472 
-0.034848 0.181314 -0.006739 
0.048042 0.079752 -0.007887 
0.040297 0.082598 -0.003720 
0.022295 0.095796 -0.008845 
0.080034 0.104870 -0.007726 
0.029223 0.108521 -0.008309 
-0.064537 0.128656 -0.007931 
0.031284 0.132288 -0.005068 
0.088811 0.143265 -0.005554 
0.051315 0.142212 -0.006710 
0.079971 0.143220 -0.006524 
0.080649 0.149907 -0.007075 
0.029166 0.152954 -0.007413 
-0.084750 0.159895 -0.007116 
-0.060755 0.162093 -0.005785 
-0.019384 0.166679 -0.007385 
-0.025018 0.175442 -0.005245 
0.029613 0.054187 -0.003649 
-0.057886 0.054151 -0.005105 
0.036767 0.057686 -0.006332 
-0.007481 0.066786 -0.007574 
0.015123 0.070012 -0.007113 
0.026591 0.094816 -0.005656 
-0.027075 0.099154 -0.004222 
0.032583 0.116568 -0.008068 
0.016452 0.126677 -0.006561 
-0.096318 0.138723 -0.006641 
0.082656 0.146291 -0.006971 
-0.092977 0.145828 -0.006098 
0.048509 0.146338 -0.007809 
-0.088885 0.149386 -0.006876 
-0.078394 0.148049 -0.006658 
-0.017001 0.151369 -0.006537 
-0.075004 0.171265 -0.008178 
-0.087275 0.174113 -0.006445 
-0.068428 0.178976 -0.004246 
-0.031819 0.179066 -0.006166 
0.045685 0.054392 -0.007124 
-0.055886 0.054891 -0.002555 
0.031709 0.055036 -0.007671 
-0.086858 0.076273 -0.005170 
0.043324 0.088113 -0.006884 
-0.043999 0.107914 -0.006168 
0.054753 0.109873 -0.006216 
0.008412 0.110788 -0.006911 
0.056395 0.129087 -0.005657 
-0.030847 0.136353 -0.005663 
-0.029656 0.142466 -0.006301 
-0.028339 0.144539 -0.004947 
-0.058954 0.145365 -0.005569 
0.087688 0.146823 -0.005878 
-0.016615 0.154053 -0.007103 
-0.059826 0.155438 -0.006830 
-0.096023 0.167053 -0.007444 
-0.032536 0.175435 -0.006367 
0.067938 0.053676 -0.007415 
0.037344 0.055382 -0.005106 
-0.002457 0.078753 -0.003830 
-0.087521 0.083709 -0.006108 
0.002581 0.087932 -0.007635 
0.079840 0.110882 -0.008063 
-0.080073 0.110597 -0.007066 
0.078104 0.115906 -0.005170 
-0.069581 0.123165 -0.004541 
-0.032298 0.129829 -0.006134 
0.055500 0.134402 -0.006242 
-0.055891 0.133763 -0.004366 
-0.084371 0.149953 -0.006418 
-0.050995 0.158832 -0.002342 
-0.079271 0.172956 -0.006186 
-0.089329 0.177342 -0.003416 
-0.028681 0.184677 -0.006293 
-0.011408 0.062119 -0.004471 
0.019324 0.059678 -0.004161 
0.041618 0.063928 -0.005372 
-0.043723 0.097067 -0.005014 
-0.025643 0.102185 -0.006662 
-0.045184 0.101942 -0.005169 
-0.020881 0.109543 -0.005407 
0.066027 0.112109 -0.004796 
-0.018231 0.115822 -0.006060 
0.057309 0.120345 -0.005628 
0.033740 0.127420 -0.006587 
0.048864 0.140711 -0.004737 
0.093913 0.148053 -0.006659 
0.092517 0.148628 -0.004995 
-0.088505 0.150223 -0.005308 
-0.019207 0.161924 -0.005872 
-0.087047 0.162240 -0.005280 
-0.089076 0.161122 -0.006373 
-0.065572 0.162722 -0.003142 
0.043879 0.055995 -0.003324 
-0.047353 0.056610 -0.005433 
0.073344 0.056355 -0.005361 
0.037524 0.060737 -0.004336 
0.023545 0.088251 -0.004658 
-0.004991 0.135352 -0.005834 
0.026123 0.130235 -0.007444 
-0.101409 0.141084 -0.003761 
0.000084 0.137532 -0.003954 
0.015731 0.149000 -0.005981 
0.032619 0.150077 -0.005368 
-0.093415 0.149918 -0.004492 
-0.022089 0.154399 -0.004989 
-0.019339 0.159675 -0.004847 
-0.085535 0.165298 -0.004748 
-0.022727 0.164972 -0.004641 
-0.099781 0.172163 -0.005263 
-0.093138 0.174891 -0.004846 
-0.029431 0.180988 -0.005658 
0.022027 0.055005 -0.003955 
0.069503 0.071344 -0.005659 
0.062072 0.071261 -0.003505 
0.015526 0.074197 -0.005019 
0.016918 0.079681 -0.006239 
-0.042024 0.095285 -0.003932 
-0.072727 0.120443 -0.005321 
0.007065 0.143817 -0.005081 
-0.097660 0.142062 -0.005880 
0.092179 0.145840 -0.005297 
-0.054526 0.157582 -0.006579 
-0.071684 0.164187 -0.002220 
-0.022430 0.173200 -0.005519 
-0.071547 0.177230 -0.004439 
-0.015047 0.058386 -0.003303 
0.046620 0.071334 -0.003510 
0.044507 0.094687 -0.005668 
0.045910 0.101854 -0.004181 
-0.082872 0.105732 -0.006115 
0.033129 0.104101 -0.003997 
0.080883 0.110202 -0.003081 
-0.009863 0.127965 -0.004827 
-0.052618 0.137993 -0.005352 
-0.034717 0.135224 -0.003108 
-0.094289 0.139774 -0.005035 
0.004846 0.138160 -0.003090 
0.020285 0.147142 -0.004432 
0.025573 0.149419 -0.004750 
-0.019427 0.148756 -0.006864 
-0.055482 0.161242 -0.006843 
-0.092955 0.165104 -0.004825 
-0.025424 0.162476 -0.003529 
-0.023244 0.168918 -0.005139 
-0.099137 0.175100 -0.005312 
-0.041931 0.179189 -0.005028 
-0.033338 0.184064 -0.005067 
-0.030200 0.054382 -0.001902 
-0.050864 0.055536 -0.005740 
-0.080855 0.062977 -0.002469 
-0.007167 0.068664 -0.003313 
0.047099 0.078891 -0.002608 
0.045373 0.080703 -0.005117 
0.001884 0.090543 -0.004520 
-0.037044 0.093862 -0.002749 
-0.085341 0.098978 -0.006323 
0.045043 0.108012 -0.002419 
0.050496 0.110750 -0.003291 
0.035987 0.118508 -0.004289 
0.068053 0.113892 -0.001835 
0.073291 0.116503 -0.001400 
0.051560 0.131409 -0.003369 
0.023006 0.134621 -0.004016 
-0.069276 0.142776 -0.008485 
-0.031215 0.179100 -0.003923 
-0.096584 0.177175 -0.003338 
-0.086265 0.178425 -0.004526 
-0.061451 0.179441 -0.004268 
-0.030830 0.184593 -0.002982 
-0.077471 0.059264 -0.004309 
-0.083301 0.066925 -0.005316 
0.043440 0.063232 -0.005047 
0.058236 0.071911 -0.003609 
0.021963 0.083248 -0.002423 
0.038953 0.088086 -0.003846 
0.065445 0.098424 -0.004048 
0.050425 0.105510 -0.005028 
0.012786 0.127563 -0.003463 
0.030607 0.136033 -0.003358 
-0.036229 0.140340 -0.002745 
-0.099222 0.146022 -0.003249 
0.036306 0.146544 -0.003869 
-0.078283 0.150310 -0.004535 
-0.090961 0.165390 -0.003733 
-0.045621 0.056778 -0.002350 
0.074272 0.062573 -0.001650 
0.029386 0.088015 -0.002277 
0.075944 0.092978 -0.004962 
-0.039697 0.093530 0.002435 
0.037992 0.094863 -0.003333 
0.033665 0.097379 -0.003207 
0.041209 0.100698 -0.003125 
-0.083423 0.102740 -0.004309 
-0.078888 0.111014 -0.001443 
0.038277 0.117849 -0.002802 
0.053626 0.126236 -0.003580 
0.037269 0.127229 -0.003626 
-0.035353 0.128276 -0.003467 
-0.060219 0.129721 -0.003252 
0.038088 0.132854 -0.002473 
0.044043 0.142472 -0.003955 
-0.033766 0.143227 -0.003032 
0.014409 0.144137 -0.003844 
-0.024257 0.152786 -0.003311 
-0.086969 0.168476 -0.002504 
-0.032043 0.170130 -0.001806 
-0.035647 0.179060 -0.002445 
-0.034733 0.183144 -0.000921 
-0.058995 0.053405 0.000408 
0.069009 0.054188 -0.003039 
0.037258 0.055395 0.000086 
-0.038724 0.056305 -0.002412 
-0.032820 0.055633 -0.006062 
0.039877 0.061714 -0.003853 
0.070270 0.071774 -0.002218 
0.035031 0.089228 -0.002844 
-0.023217 0.099558 -0.000003 
-0.047158 0.108498 0.001508 
0.004520 0.104435 -0.003726 
0.054412 0.117821 -0.003836 
-0.039847 0.119312 -0.002682 
-0.065630 0.126298 -0.004107 
0.017478 0.134342 -0.003135 
0.026174 0.138719 -0.003107 
0.021295 0.140306 -0.002970 
-0.092004 0.141479 -0.002389 
0.038967 0.141949 -0.002795 
0.025050 0.143638 -0.003239 
0.036826 0.139516 -0.002400 
-0.026553 0.149053 -0.002925 
-0.089706 0.149680 -0.002933 
-0.066226 0.153498 -0.003437 
-0.053022 0.160548 -0.000198 
-0.029419 0.167357 -0.003078 
-0.081751 0.177633 -0.003795 
-0.053146 0.178892 -0.002708 
-0.049254 0.055345 -0.000415 
0.065716 0.073007 -0.003748 
0.016506 0.079055 -0.002811 
0.072169 0.091481 -0.002997 
-0.087347 0.091300 -0.002939 
-0.001051 0.094202 0.000070 
0.004812 0.113029 -0.002059 
-0.077450 0.114467 -0.002664 
0.049000 0.115231 -0.002145 
-0.008674 0.124833 -0.002460 
0.010752 0.138364 -0.002749 
0.015780 0.138308 -0.002702 
0.030126 0.144050 -0.003145 
-0.035277 0.176463 -0.002326 
-0.077126 0.174566 -0.002991 
0.025166 0.052924 -0.004312 
-0.019199 0.054625 -0.008237 
0.014707 0.073649 -0.000523 
0.076042 0.085993 -0.001915 
-0.002882 0.086762 0.000342 
0.082378 0.100336 -0.003173 
0.038457 0.112830 -0.002336 
0.050650 0.119982 -0.002336 
0.011319 0.130433 -0.002250 
0.048085 0.134735 -0.002940 
0.006140 0.133634 -0.002018 
0.042252 0.138498 -0.002454 
-0.078434 0.140497 -0.003045 
-0.031996 0.146451 -0.002260 
-0.091579 0.167680 -0.001812 
-0.027965 0.173158 -0.002667 
-0.030184 0.174443 -0.002661 
-0.068048 0.176817 -0.000256 
-0.038224 0.181675 -0.002743 
0.034524 0.057270 -0.000829 
0.015990 0.069080 -0.001059 
0.053825 0.077556 -0.000934 
0.047933 0.074960 -0.001585 
0.081667 0.094239 -0.002449 
0.038630 0.105707 -0.002321 
0.043261 0.113766 -0.001717 
0.049216 0.126725 -0.002173 
0.045750 0.126337 -0.001802 
0.041537 0.125587 -0.001992 
0.041951 0.132145 -0.002055 
-0.051002 0.137764 -0.003222 
-0.047077 0.139975 -0.002282 
-0.092932 0.150067 -0.001012 
-0.026807 0.157767 -0.002053 
-0.029871 0.162528 -0.001868 
-0.034844 0.173047 -0.001382 
-0.073186 0.173929 -0.002708 
-0.098297 0.173147 -0.002096 
-0.046529 0.175579 0.000377 
0.062763 0.054099 -0.002587 
-0.015448 0.060276 0.000958 
0.037335 0.061630 -0.001627 
0.074336 0.072581 -0.000852 
0.045442 0.074425 -0.002736 
0.075873 0.079939 -0.001619 
0.079884 0.086438 -0.000779 
-0.081895 0.105266 -0.000129 
-0.081019 0.108425 -0.001501 
0.044304 0.119655 -0.001737 
0.005451 0.125424 -0.001228 
0.005409 0.130240 -0.001578 
-0.043681 0.133484 0.000257 
-0.039965 0.141611 -0.001345 
-0.071956 0.152427 -0.000510 
-0.049177 0.178624 -0.004778 
-0.054126 0.177566 0.000827 
-0.022541 0.054019 -0.000123 
0.044645 0.069751 -0.002017 
0.072340 0.078202 -0.000720 
-0.087659 0.083969 -0.002014 
-0.087176 0.087588 -0.003107 
-0.003882 0.129029 -0.002231 
-0.039640 0.128736 -0.000459 
-0.000117 0.127209 -0.001147 
-0.064633 0.124616 0.000501 
-0.068336 0.142772 -0.001450 
-0.104239 0.143903 -0.000735 
-0.036895 0.144031 0.000055 
-0.060588 0.145558 0.000371 
-0.084271 0.149216 -0.003242 
-0.028796 0.147524 -0.001950 
-0.029998 0.153697 -0.001251 
-0.037051 0.164906 0.000156 
-0.095568 0.171501 -0.002022 
0.071008 0.085285 -0.000155 
0.065497 0.100649 -0.000340 
-0.084688 0.099192 -0.000461 
-0.047052 0.098793 0.002046 
0.001661 0.104302 -0.000641 
-0.020032 0.104850 -0.001076 
-0.017144 0.112111 -0.002359 
-0.044065 0.112339 -0.001703 
-0.009717 0.118153 -0.000623 
-0.053209 0.145153 -0.004660 
-0.064101 0.153739 -0.000499 
-0.037562 0.158477 -0.000162 
-0.098406 0.176050 -0.000914 
-0.040522 0.174956 -0.000195 
-0.091479 0.178506 -0.000271 
-0.057578 0.178098 -0.000746 
-0.084247 0.181011 -0.001084 
-0.068505 0.054466 0.000140 
0.052955 0.053555 -0.001931 
0.052050 0.054804 0.000903 
0.073957 0.066796 -0.001161 
-0.084510 0.070079 -0.000281 
0.063744 0.073589 0.000074 
0.042632 0.070823 -0.002042 
0.077591 0.077439 -0.000548 
0.066227 0.092791 -0.000983 
0.070477 0.112830 0.001011 
-0.039577 0.134999 -0.000951 
-0.048316 0.144844 -0.002568 
-0.068335 0.162700 0.003148 
-0.032385 0.167243 -0.001219 
-0.036169 0.168141 -0.000092 
-0.093902 0.168779 -0.000970 
0.072036 0.057656 -0.001718 
0.017475 0.080639 0.002107 
0.042687 0.079298 -0.000989 
-0.033944 0.094265 -0.003326 
0.082964 0.102304 -0.000439 
-0.000014 0.110734 0.000583 
0.066465 0.107162 -0.001643 
0.004196 0.119297 -0.000924 
-0.037407 0.141800 0.001497 
-0.034994 0.151305 -0.000434 
-0.033787 0.156597 -0.000777 
-0.080293 0.178309 -0.000094 
-0.042897 0.178164 -0.000664 
-0.088441 0.180500 -0.001241 
-0.036738 0.179342 0.000145 
-0.021088 0.055571 0.001791 
0.033145 0.055542 0.001766 
-0.074874 0.057953 0.000784 
-0.086800 0.076687 -0.000924 
0.064402 0.094607 -0.000374 
-0.014068 0.112435 -0.000490 
0.000107 0.120184 -0.000003 
-0.071208 0.119716 -0.000036 
-0.047179 0.132273 0.000848 
-0.099965 0.141318 -0.001590 
-0.034615 0.145949 -0.000052 
-0.055648 0.155472 -0.002134 
-0.053494 0.156411 0.000791 
-0.068925 0.172960 -0.000335 
-0.096082 0.178965 0.000943 
-0.062355 0.053708 0.001542 
-0.034576 0.053790 0.002208 
-0.038354 0.055489 0.001176 
0.045351 0.074022 -0.000350 
0.069077 0.079476 0.001341 
0.082482 0.088375 0.001245 
-0.029248 0.095497 -0.000196 
-0.016641 0.104219 0.001452 
-0.054688 0.128946 0.001003 
-0.044082 0.144001 0.000707 
-0.038879 0.171999 0.000420 
-0.053830 0.054135 0.002298 
0.034450 0.055321 -0.000943 
0.072802 0.061712 0.002309 
-0.085602 0.072771 -0.002661 
0.070431 0.073232 0.000097 
0.050660 0.078909 0.001905 
0.033704 0.083847 -0.000576 
-0.086027 0.094925 -0.001931 
-0.005557 0.120520 -0.000319 
-0.102465 0.147069 0.000036 
-0.060680 0.153467 0.003530 
-0.049850 0.157174 0.002401 
-0.045166 0.159537 0.001125 
-0.033941 0.160630 -0.000078 
0.024752 0.058107 0.003595 
-0.042563 0.055948 -0.000478 
0.020042 0.062665 -0.000171 
0.059189 0.075353 0.000524 
0.064226 0.088568 0.001938 
0.083484 0.100551 0.003756 
-0.083520 0.140358 0.000718 
-0.095685 0.152980 0.001665 
-0.042736 0.157276 0.002457 
-0.011962 0.064366 0.000499 
-0.082377 0.066906 0.001434 
-0.007666 0.076765 0.002287 
-0.008975 0.112797 0.001008 
-0.004097 0.112293 0.001379 
0.077239 0.112142 0.000876 
-0.041584 0.124277 0.000348 
-0.052993 0.146208 0.001046 
-0.039768 0.148872 0.001928 
-0.038487 0.152979 0.000865 
-0.049120 0.160733 0.003067 
-0.040754 0.161272 0.001526 
-0.040991 0.164021 0.002227 
-0.076719 0.165730 0.000050 
-0.073439 0.171643 0.003708 
-0.039109 0.178669 0.001258 
-0.083107 0.180718 0.002651 
-0.088727 0.180695 0.002626 
0.011159 0.060061 0.002258 
-0.078012 0.061290 0.002136 
0.058392 0.081560 0.002158 
0.066983 0.087587 0.001366 
-0.004838 0.104063 0.002219 
-0.087363 0.150920 0.000589 
-0.078253 0.151761 0.000818 
-0.045591 0.154961 0.003541 
-0.083220 0.168869 0.000389 
-0.093980 0.173055 0.001644 
0.063979 0.053495 0.005872 
0.007746 0.059811 0.002609 
0.068727 0.056531 0.000236 
0.018678 0.064191 0.001847 
0.060887 0.079808 0.002590 
0.028374 0.083602 0.001053 
0.064275 0.083354 0.002678 
-0.083978 0.088623 0.006056 
0.064347 0.093309 0.003318 
0.083670 0.094560 0.002211 
-0.026096 0.095165 0.002810 
-0.001400 0.101718 0.001237 
-0.073907 0.141360 -0.003785 
-0.040239 0.143767 0.002710 
-0.062617 0.177926 0.000676 
-0.047229 0.054144 0.003888 
0.008279 0.058502 0.004803 
0.045830 0.077673 0.004675 
0.064865 0.077769 0.002262 
-0.014051 0.100839 0.003117 
0.068277 0.104588 0.005705 
-0.046068 0.124626 0.002499 
-0.055105 0.123774 0.004250 
-0.104841 0.145121 0.002179 
-0.050014 0.144641 0.003703 
-0.097956 0.151351 -0.000033 
-0.091124 0.170547 0.001527 
-0.066327 0.173516 0.001634 
0.054053 0.055068 0.006324 
0.075882 0.066608 0.005597 
0.015111 0.066040 0.002915 
0.037078 0.079326 0.003171 
0.033463 0.081316 0.001571 
0.056524 0.081068 0.005198 
0.060937 0.084818 0.003148 
-0.005756 0.089830 0.003285 
-0.004610 0.095989 0.002668 
-0.008151 0.099542 0.003295 
-0.009989 0.105471 0.002473 
-0.045052 0.117878 0.002115 
-0.101170 0.149942 0.004358 
-0.058314 0.161064 0.000685 
-0.046189 0.170446 0.002586 
-0.092680 0.179811 0.005107 
0.027093 0.054340 0.003089 
-0.071366 0.056016 0.001304 
0.041124 0.056366 0.000075 
-0.012139 0.067626 0.002879 
0.011635 0.065312 0.003457 
0.079300 0.078958 0.001968 
0.033376 0.086120 0.007917 
-0.086007 0.085393 0.003674 
0.082086 0.083247 0.004146 
-0.024475 0.091378 0.005884 
-0.068886 0.143444 0.004328 
-0.093005 0.154611 0.004944 
-0.044906 0.162849 0.003023 
-0.087445 0.171115 0.001726 
-0.092383 0.173773 0.005499 
-0.052137 0.175985 0.002086 
-0.032041 0.053322 0.003875 
0.047431 0.055722 0.002869 
0.006828 0.059465 0.004140 
0.042671 0.059696 0.003924 
-0.082975 0.070417 0.004746 
-0.011389 0.070979 0.005062 
-0.084213 0.074015 0.004023 
-0.008339 0.081230 0.004318 
0.024592 0.084662 0.002234 
-0.064237 0.120504 0.004348 
-0.103766 0.143196 0.002037 
-0.067923 0.151683 0.002917 
-0.081623 0.168579 0.004562 
-0.051002 0.172602 0.003617 
-0.089306 0.179304 0.007557 
-0.086131 0.181482 0.002674 
0.023694 0.061318 0.004282 
-0.012903 0.096580 0.004379 
-0.074682 0.114647 0.002281 
-0.091643 0.142326 0.003555 
-0.098378 0.144585 0.004209 
0.057361 0.052904 -0.000679 
-0.051360 0.053513 0.006171 
0.077084 0.071111 0.002102 
0.020859 0.083540 0.002619 
-0.032932 0.092797 0.003809 
-0.080083 0.103552 0.004795 
-0.077591 0.108606 0.004547 
-0.049163 0.116787 0.004723 
-0.099970 0.153508 0.005773 
-0.045999 0.149320 0.004089 
-0.097932 0.155703 0.005016 
-0.058092 0.154817 0.005397 
-0.066966 0.170511 0.003013 
-0.059760 0.169784 0.005033 
-0.055340 0.171130 0.004589 
-0.062809 0.172566 0.004686 
-0.028946 0.053787 0.004825 
0.043490 0.059313 0.005766 
-0.009169 0.085522 0.005039 
-0.085699 0.091389 0.003358 
-0.019046 0.096542 0.003764 
0.074214 0.109595 0.004721 
-0.051394 0.119957 0.005042 
0.036015 0.123376 0.006227 
-0.086107 0.140903 0.003549 
-0.064802 0.144727 0.003051 
-0.074695 0.164497 0.005264 
-0.055220 0.168069 0.006697 
0.033519 0.053133 0.007282 
-0.066109 0.055877 0.007427 
0.067381 0.056334 0.005001 
-0.071086 0.057711 0.006758 
0.011997 0.059062 0.003862 
0.042662 0.064196 0.007912 
0.016357 0.061440 0.003706 
0.062366 0.087278 0.006985 
0.083706 0.089099 0.004970 
0.083095 0.098501 0.007273 
0.080682 0.107337 0.002770 
-0.057301 0.160262 0.005275 
-0.058074 0.176250 0.003576 
0.037057 0.054902 0.005601 
0.042022 0.056915 0.005181 
0.018830 0.059872 0.007087 
-0.085414 0.078155 0.003828 
-0.010083 0.091564 0.004869 
-0.052375 0.151121 0.006074 
-0.087661 0.152714 0.005215 
-0.082154 0.167777 0.007612 
-0.046712 0.167551 0.004130 
-0.057443 0.173282 0.004877 
-0.078700 0.175213 0.004787 
0.029812 0.053043 0.002137 
-0.033407 0.054341 0.007234 
-0.021205 0.088874 0.007072 
-0.083522 0.096304 0.004009 
-0.049462 0.096586 0.009087 
-0.048001 0.103258 0.002255 
-0.049820 0.108007 0.005675 
-0.055885 0.119755 0.005988 
-0.049340 0.143895 0.006158 
-0.053161 0.154841 0.005278 
-0.064105 0.169031 0.007243 
-0.062714 0.175651 0.004773 
-0.084023 0.178381 0.007262 
-0.073765 0.060764 0.008205 
-0.013022 0.066592 0.006174 
-0.078347 0.064520 0.007212 
0.033850 0.080766 0.005226 
-0.045054 0.096094 0.002039 
0.071963 0.106554 0.006991 
0.036923 0.115147 0.006120 
-0.045985 0.145691 0.004743 
-0.103064 0.147941 0.007322 
-0.083848 0.152153 0.005928 
-0.068789 0.169936 0.006183 
0.071952 0.060385 0.007784 
0.022054 0.062873 0.006186 
0.011307 0.066258 0.005935 
-0.075242 0.149154 0.006661 
-0.068980 0.150395 0.007823 
-0.020360 0.058850 0.005320 
-0.023009 0.056200 0.008003 
0.016294 0.073833 0.005277 
-0.011034 0.081126 0.006359 
-0.038928 0.090813 0.007613 
-0.012875 0.094190 0.006420 
0.064893 0.092811 0.009468 
0.035558 0.115623 0.006675 
-0.057677 0.151522 0.007323 
-0.054555 0.161284 0.006752 
-0.053641 0.164584 0.007551 
-0.088181 0.170208 0.009597 
-0.094350 0.178087 0.005456 
-0.040394 0.053583 0.006956 
-0.063768 0.054703 0.005009 
-0.027402 0.056313 0.007407 
0.016995 0.077951 0.004725 
-0.032521 0.088996 0.007957 
-0.083464 0.091794 0.007267 
0.084064 0.094904 0.006375 
0.066749 0.101483 0.004945 
0.034584 0.108148 0.008998 
-0.072737 0.109801 0.007489 
0.039662 0.113110 0.008032 
0.036276 0.118817 0.008955 
-0.095210 0.144751 0.009676 
-0.102224 0.145720 0.005810 
-0.078376 0.150937 0.006463 
-0.051121 0.054691 0.009098 
0.014336 0.066143 0.006842 
0.017940 0.068389 0.007752 
-0.085885 0.081846 0.002782 
0.024610 0.085931 0.009140 
0.037686 0.106046 0.008309 
-0.057735 0.113887 0.007837 
-0.075350 0.141653 0.005569 
-0.017964 0.057153 0.008156 
0.030503 0.057772 0.011119 
0.023380 0.060984 0.007529 
-0.010150 0.073506 0.007735 
-0.082530 0.075236 0.008655 
0.041825 0.077301 0.006864 
0.020559 0.082723 0.007076 
-0.013143 0.088746 0.007863 
-0.016639 0.090834 0.007231 
-0.080093 0.095762 0.009314 
-0.051487 0.103524 0.007834 
-0.068136 0.114877 0.006525 
-0.065033 0.144614 0.006868 
-0.105392 0.156563 0.009904 
-0.086877 0.178414 0.006487 
-0.061416 0.056074 0.009476 
0.036606 0.075944 0.010611 
-0.011516 0.078773 0.010356 
0.080537 0.103137 0.007609 
0.077275 0.104838 0.008583 
0.039075 0.121555 0.007593 
-0.059425 0.144436 0.006571 
-0.094739 0.156146 0.009169 
-0.063738 0.160875 0.008596 
-0.089957 0.171754 0.010532 
-0.082585 0.175966 0.007962 
0.059620 0.053482 0.006167 
-0.057354 0.054278 0.007415 
-0.010227 0.067597 0.008978 
0.019803 0.075400 0.010842 
0.052736 0.078351 0.011239 
-0.082910 0.078904 0.008358 
-0.021730 0.083656 0.008791 
-0.061608 0.115911 0.007467 
-0.051319 0.145767 0.007759 
-0.056785 0.146357 0.009512 
-0.092492 0.178833 0.010947 
0.052838 0.055150 0.009395 
0.008407 0.063214 0.007640 
0.012149 0.065040 0.009630 
-0.043915 0.093100 0.007624 
-0.080400 0.100144 0.007130 
-0.087593 0.152224 0.009618 
-0.105072 0.159025 0.010959 
-0.055568 0.162917 0.007605 
-0.059475 0.166828 0.008366 
0.032925 0.055535 0.010083 
0.079610 0.074351 0.007177 
-0.075970 0.104527 0.008609 
-0.055695 0.108822 0.008547 
-0.062057 0.107978 0.010072 
-0.060300 0.143323 0.010610 
-0.100862 0.158035 0.008068 
-0.077935 0.172243 0.008970 
0.057896 0.054186 0.011728 
0.046108 0.055408 0.007083 
-0.040516 0.058497 0.011970 
-0.013140 0.060486 0.008449 
0.021657 0.058466 0.010833 
0.012394 0.059678 0.007675 
0.022928 0.066088 0.010206 
-0.024511 0.080759 0.010138 
0.036568 0.111681 0.012835 
-0.072737 0.142680 0.007245 
-0.103918 0.157597 0.007811 
-0.052093 0.166006 0.007281 
-0.064469 0.167606 0.010450 
-0.085386 0.175200 0.009964 
-0.090841 0.179382 0.011014 
0.038630 0.053953 0.012389 
-0.046511 0.055664 0.010504 
0.016447 0.058965 0.010708 
-0.071213 0.062299 0.011818 
-0.022379 0.073676 0.010593 
0.048238 0.077157 0.008914 
-0.083207 0.083667 0.009173 
-0.027475 0.085065 0.009564 
-0.067204 0.109005 0.009405 
-0.057219 0.142382 0.008572 
-0.054132 0.143127 0.008957 
-0.099757 0.146596 0.010440 
-0.068850 0.149183 0.010656 
-0.075638 0.149085 0.009019 
-0.074494 0.170010 0.011835 
0.044153 0.054247 0.009567 
-0.038062 0.055063 0.008991 
-0.011061 0.060129 0.010627 
0.022842 0.071328 0.012705 
-0.080161 0.070575 0.009417 
-0.021799 0.078551 0.010339 
0.083372 0.084700 0.009202 
-0.036345 0.086238 0.011720 
0.034672 0.108416 0.010943 
-0.081948 0.173925 0.010920 
-0.019584 0.053529 0.010292 
0.004280 0.055854 0.011571 
0.027302 0.057469 0.009916 
0.010318 0.058450 0.011786 
-0.026823 0.077971 0.010908 
0.058666 0.082697 0.010588 
0.037170 0.083535 0.010290 
0.068541 0.098502 0.011707 
-0.070502 0.101578 0.011506 
-0.063771 0.146593 0.011059 
-0.101235 0.154066 0.009259 
-0.079428 0.151954 0.012367 
-0.081726 0.164251 0.009816 
0.044215 0.053196 0.012524 
0.052669 0.054401 0.012523 
-0.059450 0.057973 0.012670 
0.020394 0.064607 0.011064 
0.079420 0.072017 0.012996 
0.081788 0.078982 0.008790 
-0.013964 0.082490 0.011898 
0.082437 0.082992 0.013873 
-0.080005 0.088949 0.011108 
-0.053332 0.099040 0.010798 
-0.057927 0.102391 0.010862 
-0.084827 0.142050 0.010295 
-0.077640 0.150557 0.010687 
-0.077788 0.162519 0.009654 
-0.091363 0.175613 0.012874 
-0.027611 0.055457 0.011412 
0.004511 0.058406 0.011505 
0.006743 0.061101 0.011614 
-0.079386 0.081102 0.012021 
-0.016442 0.086596 0.010770 
0.083580 0.090941 0.009984 
-0.075945 0.092519 0.012697 
0.042502 0.111421 0.013114 
-0.096109 0.155037 0.012463 
-0.087038 0.167508 0.012066 
0.042555 0.064977 0.010999 
0.026945 0.068794 0.012954 
-0.019233 0.075940 0.012066 
0.036924 0.079048 0.010357 
-0.057278 0.098167 0.012785 
0.073131 0.101473 0.011832 
-0.064468 0.100927 0.012248 
0.037087 0.103448 0.011200 
-0.079200 0.141263 0.007065 
-0.063918 0.142211 0.010803 
-0.086438 0.150722 0.011313 
-0.101167 0.158191 0.011924 
-0.009086 0.070253 0.012771 
0.039793 0.078582 0.013214 
-0.019126 0.083099 0.011264 
0.038970 0.100258 0.012194 
0.041996 0.106323 0.010947 
0.040316 0.118482 0.010426 
-0.099380 0.151682 0.011030 
-0.107777 0.158344 0.011572 
-0.078693 0.172223 0.013601 
-0.014327 0.054492 0.011483 
0.030825 0.056064 0.016296 
-0.018807 0.074094 0.013547 
-0.035188 0.084686 0.014390 
-0.071714 0.142446 0.012090 
-0.081365 0.150812 0.011315 
-0.066167 0.060107 0.012513 
0.006623 0.064573 0.013025 
0.040908 0.065433 0.011641 
-0.074660 0.067539 0.012404 
0.021792 0.080352 0.011724 
0.040088 0.087601 0.014389 
0.029722 0.088034 0.009915 
0.037212 0.091900 0.012928 
-0.073666 0.098097 0.011909 
0.041018 0.097290 0.013760 
-0.072643 0.162788 0.010674 
-0.069638 0.168713 0.010563 
0.061673 0.053299 0.009723 
0.062933 0.053744 0.012932 
0.004666 0.060031 0.013438 
-0.078305 0.075581 0.012263 
0.026489 0.086269 0.014008 
-0.068534 0.093779 0.014021 
-0.080750 0.142390 0.013043 
-0.103180 0.156914 0.012888 
-0.069315 0.165499 0.013910 
-0.064390 0.165178 0.012395 
-0.071045 0.168115 0.014216 
-0.023294 0.053107 0.014195 
-0.008999 0.065737 0.012720 
0.076040 0.066071 0.012300 
-0.067214 0.064086 0.015233 
0.008312 0.065609 0.014312 
0.040011 0.075965 0.013708 
0.045425 0.097866 0.014791 
-0.068274 0.143539 0.013114 
-0.090587 0.153348 0.013190 
-0.073051 0.163582 0.013057 
-0.067968 0.163308 0.012178 
-0.079594 0.162369 0.012518 
-0.017840 0.053113 0.016331 
0.045394 0.054291 0.016558 
0.032123 0.058937 0.016121 
0.042005 0.073232 0.015921 
-0.016804 0.079191 0.013873 
0.042104 0.078984 0.014598 
-0.052949 0.095545 0.014827 
0.038624 0.115953 0.013048 
-0.080115 0.147792 0.015036 
0.006589 0.057189 0.013971 
0.016193 0.057704 0.018107 
-0.054295 0.057050 0.011668 
0.069141 0.057614 0.011769 
-0.047247 0.058780 0.012965 
-0.034861 0.059281 0.012621 
-0.011644 0.074511 0.014765 
0.081168 0.096185 0.011972 
0.046348 0.102941 0.017466 
0.040904 0.111381 0.015562 
-0.073914 0.145249 0.014369 
-0.085113 0.151224 0.014399 
-0.045376 0.062942 0.014985 
-0.040683 0.064455 0.015979 
0.019056 0.063675 0.016080 
0.013927 0.064832 0.013751 
0.042102 0.075109 0.012785 
0.025020 0.080321 0.015540 
-0.046496 0.092909 0.012769 
0.035564 0.095086 0.014510 
-0.089134 0.143167 0.010666 
-0.081507 0.165131 0.013333 
0.026671 0.055902 0.016374 
-0.010467 0.059063 0.013835 
0.081446 0.077172 0.013549 
-0.073172 0.080655 0.014791 
0.062481 0.086854 0.015582 
0.042775 0.093403 0.014989 
0.076625 0.091700 0.017671 
0.071641 0.093483 0.017411 
0.077226 0.098783 0.013263 
-0.072976 0.142904 0.014431 
-0.094494 0.145263 0.014423 
-0.080765 0.172020 0.015103 
-0.028357 0.053817 0.017249 
0.035168 0.059677 0.014867 
0.029533 0.071639 0.016609 
-0.024676 0.074095 0.013948 
-0.070216 0.076134 0.015947 
0.042010 0.082319 0.014593 
-0.073774 0.086476 0.014482 
-0.058378 0.095476 0.015082 
0.066093 0.056816 0.016627 
0.041464 0.057192 0.017041 
0.041930 0.069980 0.018003 
-0.071216 0.071088 0.015021 
-0.014364 0.074987 0.016441 
0.080840 0.089630 0.015471 
0.067385 0.091956 0.017183 
-0.080288 0.141600 0.016631 
-0.088800 0.150599 0.017162 
-0.092238 0.153372 0.014981 
-0.076065 0.169544 0.015942 
-0.086541 0.175484 0.014102 
0.052006 0.053346 0.016316 
-0.012696 0.054796 0.015370 
0.023218 0.056772 0.015240 
-0.060543 0.058736 0.015465 
0.072722 0.061852 0.015473 
0.040887 0.068867 0.014510 
0.040456 0.074736 0.016323 
-0.066630 0.083855 0.016090 
-0.068509 0.088389 0.015286 
0.081010 0.084322 0.016916 
0.045532 0.101659 0.015034 
-0.085811 0.169358 0.014547 
-0.078446 0.167668 0.015620 
-0.014524 0.053482 0.017498 
0.010543 0.057923 0.016389 
-0.051584 0.058741 0.016558 
-0.010298 0.058604 0.019039 
0.007671 0.061023 0.017417 
-0.018721 0.072315 0.017686 
0.026615 0.075287 0.015957 
0.032202 0.090881 0.014178 
-0.097995 0.146699 0.018708 
-0.089837 0.175713 0.015673 
-0.057728 0.055865 0.017248 
-0.062135 0.057392 0.017879 
-0.046615 0.064003 0.016964 
0.026761 0.065696 0.013875 
0.034251 0.064017 0.017427 
0.036899 0.067545 0.016215 
-0.067863 0.069412 0.016833 
-0.048440 0.092383 0.017403 
-0.086399 0.172565 0.016687 
0.057419 0.053595 0.016990 
-0.031903 0.057110 0.015533 
-0.033704 0.058318 0.018798 
0.009550 0.064071 0.017855 
0.013533 0.063762 0.016948 
-0.021707 0.072382 0.014080 
-0.029756 0.079336 0.014730 
-0.053478 0.092408 0.018692 
0.034295 0.098855 0.015783 
0.034708 0.103102 0.015453 
0.038311 0.108953 0.016189 
-0.008599 0.065219 0.017657 
0.046815 0.089710 0.020389 
-0.040157 0.087125 0.017499 
0.034033 0.095157 0.019073 
-0.082710 0.140934 0.017291 
-0.099205 0.146749 0.015535 
0.039579 0.060098 0.017591 
-0.028623 0.076115 0.018596 
0.054111 0.077362 0.019336 
-0.034449 0.082351 0.017953 
0.043345 0.085842 0.017660 
-0.083604 0.145457 0.018252 
-0.100109 0.149326 0.013771 
0.050305 0.055441 0.019314 
0.027639 0.068300 0.018033 
0.076466 0.067485 0.016991 
0.047970 0.075416 0.015863 
0.030025 0.079662 0.018701 
0.042704 0.078710 0.019331 
-0.059839 0.092887 0.016735 
0.033693 0.100373 0.019423 
-0.091169 0.143829 0.017344 
-0.053826 0.056468 0.017425 
-0.047860 0.060238 0.019911 
0.072420 0.064251 0.020315 
0.023106 0.063811 0.014922 
-0.012690 0.072431 0.017926 
-0.056131 0.080547 0.019889 
-0.061657 0.083139 0.017807 
-0.062728 0.089359 0.016680 
-0.044992 0.088344 0.019694 
0.044755 0.091843 0.017125 
0.047859 0.096749 0.018805 
0.035482 0.105191 0.017998 
-0.054003 0.053884 0.021174 
0.044698 0.084083 0.019348 
-0.055175 0.086106 0.019993 
-0.095954 0.149597 0.018420 
0.061853 0.056215 0.019263 
0.080034 0.074896 0.016248 
-0.063741 0.078809 0.017906 
0.077258 0.084885 0.020189 
-0.025068 0.053338 0.020985 
0.019993 0.063521 0.020646 
-0.040055 0.063935 0.018632 
-0.044158 0.065843 0.018794 
-0.016533 0.065137 0.020390 
-0.068054 0.070583 0.019339 
-0.018591 0.068003 0.019115 
0.077965 0.074582 0.020097 
-0.067764 0.077120 0.018469 
-0.055541 0.090241 0.019394 
0.038284 0.070528 0.019452 
-0.012961 0.068474 0.019758 
-0.016918 0.069606 0.020426 
-0.066532 0.075598 0.020632 
-0.058999 0.054133 0.020513 
-0.065638 0.062564 0.018650 
-0.021744 0.065666 0.021029 
-0.015877 0.072327 0.019591 
0.049951 0.072908 0.020999 
0.059127 0.082010 0.018395 
0.030089 0.086011 0.019220 
-0.050305 0.088706 0.020282 
0.038814 0.106148 0.020225 
-0.082349 0.140699 0.019721 
-0.091020 0.148244 0.019859 
-0.062568 0.054655 0.022127 
-0.025311 0.071369 0.019371 
-0.032619 0.076709 0.020690 
-0.062008 0.076128 0.021540 
-0.039133 0.083521 0.020263 
0.063547 0.084502 0.020628 
0.072215 0.086383 0.021383 
0.034126 0.092394 0.020515 
0.047822 0.098717 0.023124 
-0.010560 0.063802 0.020520 
0.075531 0.069713 0.020954 
-0.029118 0.071135 0.020786 
0.033134 0.083543 0.023544 
0.068175 0.085411 0.021808 
-0.065526 0.057455 0.023075 
0.007099 0.058587 0.021048 
0.068178 0.063473 0.023138 
0.020821 0.061645 0.022561 
0.033927 0.063498 0.021836 
-0.037246 0.062473 0.021926 
0.025535 0.064280 0.020232 
-0.052396 0.079051 0.024034 
-0.048236 0.082594 0.021041 
0.045540 0.103678 0.020454 
0.056869 0.056839 0.020974 
0.013287 0.057763 0.021033 
0.063582 0.061169 0.023087 
0.042469 0.062644 0.019541 
0.047830 0.064229 0.022466 
-0.067372 0.064458 0.022653 
-0.045481 0.064824 0.022066 
0.044375 0.066283 0.020573 
